VERSION 0.7
FIELDS x y z intensity
SIZE 4 4 4 4
TYPE F F F Fc
COUNT 1 1 1 1
WIDTH 1981
HEIGHT 1
VIEWPOINT 0 0 0 1 0 0 0
POINTS 1981
DATA ascii
4.14 12.47 -0.91 9 2.47
2.47 12.63 -1.8 20 12.24
12.24 36.81 -0.67 6 12.23
12.23 36.76 1.34 19 6.58
6.58 33.43 -1.18 2 4.82
4.82 8.23 -1.84 4 2.52
2.52 5.98 -1.84 5 3.37
3.37 8 -1.83 5 13.76
13.76 23.52 -0.7 11 4.46
4.46 10.57 -1.81 6 19.75
19.75 33.74 1.01 15 8.69
8.69 12.51 -1.59 12 14.29
14.29 33.84 -1.6 1 22.97
22.97 33.06 -2.1 1 25.44
25.44 60.23 0.57 1 23.19
23.19 33.38 0 2 1.49
1.49 12.39 -1.41 11 2.45
2.45 7.35 -1.84 6 2.91
2.91 23.95 -1.46 4 3.32
3.32 9.91 -1.83 6 2.92
2.92 23.97 -0.2 9 4.17
4.17 12.44 -1.6 8 2.92
2.92 23.98 1.04 17 2.51
2.51 12.63 -1.8 16 12.2
12.2 36.29 -0.66 9 12.2
12.2 36.29 1.32 15 6.69
6.69 33.41 -1.18 2 4.85
4.85 8.21 -1.84 6 2.54
2.54 5.97 -1.85 6 7.38
7.38 12.53 -1.13 13 3.4
3.4 7.99 -1.83 6 19.86
19.86 33.67 -1.01 17 4.5
4.5 10.55 -1.81 7 19.89
19.89 33.71 1.01 24 5.31
5.31 12.46 -1.29 6 8.75
8.75 12.51 -1.59 9 14.41
14.41 33.82 -1.6 1 22.28
22.28 31.84 -2.02 15 25.64
25.64 60.13 0.57 2 32.35
32.35 46.22 0 15 1.54
1.54 12.41 -1.41 8 2.48
2.48 7.34 -1.84 6 2.99
2.99 23.91 -1.46 30 3.35
3.35 9.88 -1.83 6 3
3 23.91 -0.2 23 4.22
4.22 12.44 -1.6 7 3
3 23.9 1.04 39 4.24
4.24 12.47 -0.91 4 2.56
2.56 12.62 -1.8 19 12.19
12.19 35.85 -0.66 9 2.53
2.53 12.42 -1.1 6 12.18
12.18 35.78 1.31 17 6.81
6.81 33.38 -1.18 3 4.88
4.88 8.2 -1.84 4 2.56
2.56 5.95 -1.84 5 3.43
3.43 7.98 -1.83 5 20.03
20.03 33.68 -1.01 19 4.53
4.53 10.54 -1.81 6 20.06
20.06 33.72 1.01 29 5.36
5.36 12.45 -1.3 12 8.83
8.83 12.52 -1.6 8 14.57
14.57 33.83 -1.6 1 22.34
22.34 31.68 -2.02 17 37.55
37.55 87.12 5.8 4 38.04
38.04 53.88 3.44 6 2.51
2.51 7.33 -1.85 7 3.07
3.07 23.89 -1.46 3 3.39
3.39 9.88 -1.83 7 4.38
4.38 33.96 -0.29 35 4.28
4.28 12.46 -1.61 7 3.09
3.09 23.91 1.04 1 4.28
4.28 12.46 -0.91 12 2.6
2.6 12.63 -1.8 16 12.14
12.14 35.29 -0.65 15 2.58
2.58 12.43 -1.1 15 12.14
12.14 35.25 1.29 29 6.92
6.92 33.33 -1.18 1 4.91
4.91 8.18 -1.84 4 2.58
2.58 5.95 -1.84 7 3.46
3.46 7.97 -1.83 6 20.18
20.18 33.66 -1.02 15 4.57
4.57 10.52 -1.81 7 20.21
20.21 33.7 1.02 25 5.42
5.42 12.47 -1.3 2 8.9
8.9 12.52 -1.6 7 14.7
14.7 33.81 -1.6 1 25.34
25.34 58.25 0.55 2 33.44
33.44 47.06 0 1 37.96
37.96 87.19 5.81 4 38.46
38.46 54.07 3.46 1 2.53
2.53 7.32 -1.84 6 3.42
3.42 9.86 -1.83 6 4.47
4.47 33.74 -0.29 1 4.31
4.31 12.43 -1.6 6 2.65
2.65 12.62 -1.8 20 12.17
12.17 34.98 -0.64 15 12.14
12.14 34.87 1.28 23 7.04
7.04 33.32 -1.18 2 4.94
4.94 8.16 -1.84 4 2.6
2.6 5.94 -1.84 5 7.56
7.56 12.53 -1.14 17 3.48
3.48 7.96 -1.83 5 19.31
19.31 31.98 -0.97 21 4.61
4.61 10.51 -1.81 6 20.35
20.35 33.69 1.02 27 5.49
5.49 12.51 -1.31 2 8.96
8.96 12.52 -1.61 6 14.83
14.83 33.81 -1.61 1 22.66
22.66 31.67 -2.03 3 25.52
25.52 58.15 0.55 1 32.98
32.98 46.08 0 68 38.34
38.34 87.28 5.82 1 1.67
1.67 12.41 -1.42 10 2.56
2.56 7.31 -1.84 7 4.4
4.4 32.49 -1.99 30 3.46
3.46 9.86 -1.83 7 4.62
4.62 33.94 -0.29 2 4.36
4.36 12.43 -1.61 7 2.69
2.69 12.61 -1.8 16 12.09
12.09 34.38 -0.63 1 12.08
12.08 34.32 1.26 39 7.15
7.15 33.27 -1.18 3 4.97
4.97 8.15 -1.84 4 2.63
2.63 5.93 -1.85 6 3.52
3.52 7.95 -1.84 5 20.5
20.5 33.67 -1.02 1 4.65
4.65 10.5 -1.81 6 20.51
20.51 33.67 1.02 27 5.52
5.52 12.47 -1.3 10 9.03
9.03 12.53 -1.61 7 14.97
14.97 33.8 -1.61 1 22.82
22.82 31.64 -2.03 9 33.01
33.01 45.77 0 34 1.72
1.72 12.42 -1.42 8 2.58
2.58 7.3 -1.84 7 4.53
4.53 32.5 -1.99 29 3.49
3.49 9.84 -1.83 6 4.74
4.74 33.92 -0.29 2 4.42
4.42 12.45 -1.61 7 4.44
4.44 12.49 -0.92 8 2.74
2.74 12.61 -1.8 15 12.1
12.1 34.01 -0.62 1 2.71
2.71 12.43 -1.1 8 12.18
12.18 34.21 1.26 72 7.27
7.27 33.26 -1.18 27 5
5 8.12 -1.84 6 2.65
2.65 5.93 -1.85 6 7.67
7.67 12.52 -1.15 2 3.54
3.54 7.93 -1.83 7 20.64
20.64 33.64 -1.02 1 4.68
4.68 10.48 -1.81 7 20.66
20.66 33.65 1.02 24 5.57
5.57 12.46 -1.3 7 9.1
9.1 12.52 -1.62 7 15.1
15.1 33.79 -1.61 1 23.01
23.01 31.69 -2.04 12 25.13
25.13 56.19 0.53 3 33.64
33.64 46.32 0 30 30.35
30.35 41.75 2.69 9 2.61
2.61 7.29 -1.84 6 4.64
4.64 32.5 -2 33 3.52
3.52 9.82 -1.83 6 4.85
4.85 33.9 -0.29 3 4.46
4.46 12.43 -1.61 6 4.48
4.48 12.48 -0.92 10 2.78
2.78 12.59 -1.8 17 12.24
12.24 34.05 -0.63 1 2.75
2.75 12.42 -1.1 9 12.31
12.31 34.23 1.26 74 7.37
7.37 33.18 -1.18 58 5.03
5.03 8.11 -1.84 4 2.67
2.67 5.92 -1.85 5 7.74
7.74 12.53 -1.15 14 3.57
3.57 7.92 -1.83 6 20.79
20.79 33.63 -1.02 19 4.72
4.72 10.47 -1.81 6 20.81
20.81 33.64 1.02 27 9.17
9.17 12.53 -1.62 6 15.24
15.24 33.79 -1.61 1 23.18
23.18 31.68 -2.04 12 33.45
33.45 45.73 0 19 2.63
2.63 7.28 -1.84 7 4.75
4.75 32.49 -2 29 3.55
3.55 9.81 -1.83 7 4.97
4.97 33.85 -0.29 3 4.53
4.53 12.49 -1.62 7 2.83
2.83 12.59 -1.8 16 12.42
12.42 34.15 -0.63 1 12.46
12.46 34.24 1.26 63 7.49
7.49 33.15 -1.17 4 5.05
5.05 8.09 -1.84 6 2.69
2.69 5.91 -1.85 6 3.6
3.6 7.91 -1.83 6 20.94
20.94 33.59 -1.02 1 4.75
4.75 10.44 -1.81 6 20.97
20.97 33.63 1.03 28 5.68
5.68 12.47 -1.31 9 9.24
9.24 12.53 -1.63 6 15.38
15.38 33.75 -1.61 1 24.77
24.77 54.34 0.52 1 22.03
22.03 29.88 0 4 39.24
39.24 86.03 5.78 23 1.85
1.85 12.43 -1.42 14 2.66
2.66 7.28 -1.85 6 4.87
4.87 32.5 -2 32 3.59
3.59 9.79 -1.83 5 5.09
5.09 33.82 -0.29 3 4.58
4.58 12.47 -0.92 2 2.87
2.87 12.6 -1.8 16 12.54
12.54 34.1 -0.63 1 12.59
12.59 34.23 1.26 62 7.6
7.6 33.11 -1.17 3 5.07
5.07 8.07 -1.84 5 2.71
2.71 5.9 -1.85 6 7.87
7.87 12.53 -1.15 5 3.62
3.62 7.89 -1.83 5 21.09
21.09 33.58 -1.03 1 4.79
4.79 10.43 -1.81 6 21.13
21.13 33.63 1.03 31 5.72
5.72 12.45 -1.31 23 9.3
9.3 12.53 -1.63 5 15.51
15.51 33.74 -1.61 1 15.64
15.64 34.02 0.32 3 22.17
22.17 29.87 0 31 39.59
39.59 86.03 5.79 22 32.38
32.38 43.6 2.83 3 1.89
1.89 12.42 -1.42 7 2.69
2.69 7.27 -1.85 6 4.98
4.98 32.51 -2 35 3.62
3.62 9.78 -1.83 5 5.19
5.19 33.79 -0.29 3 5.03
5.03 13.58 -1.77 6 4.62
4.62 12.47 -0.92 14 2.91
2.91 12.57 -1.8 15 12.67
12.67 34.14 -0.63 1 2.89
2.89 12.44 -1.11 20 12.71
12.71 34.22 1.26 54 7.72
7.72 33.12 -1.18 4 5.1
5.1 8.04 -1.84 4 2.73
2.73 5.89 -1.84 6 7.92
7.92 12.53 -1.16 11 3.65
3.65 7.89 -1.84 6 21.24
21.24 33.57 -1.03 1 4.82
4.82 10.41 -1.81 7 21.27
21.27 33.61 1.03 24 5.76
5.76 12.42 -1.31 18 15.65
15.65 33.75 -1.62 1 23.71
23.71 31.72 -2.06 25 15.77
15.77 34.01 0.32 50 22.1
22.1 29.57 0 4 39.91
39.91 85.95 5.79 1 32.75
32.75 43.78 2.85 9 2.71
2.71 7.26 -1.85 6 5.09
5.09 32.5 -2 33 3.65
3.65 9.77 -1.83 6 5.31
5.31 33.76 -0.29 3 5.11
5.11 13.64 -1.78 6 4.67
4.67 12.45 -0.92 4 2.94
2.94 12.52 -1.8 11 12.82
12.82 34.17 -0.63 1 2.94
2.94 12.43 -1.11 5 12.85
12.85 34.21 1.26 44 7.83
7.83 33.09 -1.18 4 14.42
14.42 60.87 1.08 12 5.13
5.13 8.02 -1.84 4 2.75
2.75 5.88 -1.85 5 7.96
7.96 12.49 -1.16 3 3.68
3.68 7.87 -1.83 6 21.42
21.42 33.58 -1.03 1 4.86
4.86 10.39 -1.8 6 21.44
21.44 33.61 1.03 25 5.82
5.82 12.43 -1.31 15 9.46
9.46 12.56 -1.64 4 15.79
15.79 33.74 -1.62 1 23.85
23.85 31.67 -2.06 27 15.9
15.9 33.96 0.32 59 22.26
22.26 29.56 0 3 30.33
30.33 40.23 2.63 27 2.73
2.73 7.25 -1.84 5 5.22
5.22 32.5 -2 35 3.69
3.69 9.75 -1.83 5 5.43
5.43 33.73 -0.29 3 5.16
5.16 13.64 -1.78 6 2.97
2.97 12.41 -1.78 6 12.96
12.96 34.16 -0.63 1 12.98
12.98 34.2 1.26 39 7.95
7.95 33.07 -1.18 3 14.18
14.18 58.92 1.04 9 5.15
5.15 8 -1.84 5 2.77
2.77 5.87 -1.85 5 8.04
8.04 12.52 -1.16 9 3.71
3.71 7.86 -1.84 6 21.58
21.58 33.57 -1.03 1 4.9
4.9 10.38 -1.81 6 21.59
21.59 33.58 1.03 25 5.87
5.87 12.44 -1.31 2 10.35
10.35 13.64 -1.79 6 15.94
15.94 33.74 -1.62 1 24.05
24.05 31.69 -2.07 29 24.7
24.7 52.25 0.5 1 2.03
2.03 12.42 -1.42 12 2.76
2.76 7.23 -1.84 6 5.33
5.33 32.5 -2 31 3.72
3.72 9.74 -1.83 6 5.55
5.55 33.7 -0.29 3 5.21
5.21 13.61 -1.78 7 4.78
4.78 12.49 -0.93 8 2.99
2.99 12.31 -1.77 4 13.09
13.09 34.14 -0.63 1 13.12
13.12 34.19 1.27 30 8.07
8.07 33.04 -1.18 4 13.96
13.96 57.11 1.01 9 5.19
5.19 8 -1.84 4 2.79
2.79 5.86 -1.84 7 8.11
8.11 12.54 -1.17 9 3.73
3.73 7.84 -1.83 7 21.74
21.74 33.57 -1.03 1 4.93
4.93 10.35 -1.8 6 21.75
21.75 33.58 1.03 27 5.96
5.96 12.5 -1.32 1 10.42
10.42 13.63 -1.79 5 16.07
16.07 33.72 -1.62 1 24.28
24.28 31.78 -2.08 37 25.15
25.15 32.91 0 44 30.01
30.01 39.24 2.57 39 2.07
2.07 12.39 -1.42 6 2.78
2.78 7.22 -1.84 6 5.44
5.44 32.47 -2 29 3.75
3.75 9.72 -1.82 6 5.66
5.66 33.66 -0.29 3 5.27
5.27 13.61 -1.78 7 4.83
4.83 12.49 -0.93 8 3.02
3.02 12.27 -1.76 7 13.23
13.23 34.15 -0.63 23 3.08
3.08 12.43 -1.11 19 13.25
13.25 34.18 1.27 31 8.19
8.19 33.03 -1.18 4 13.86
13.86 55.88 0.99 4 5.21
5.21 7.97 -1.84 6 2.81
2.81 5.85 -1.85 7 8.17
8.17 12.53 -1.17 7 3.76
3.76 7.83 -1.83 6 21.9
21.9 33.56 -1.04 1 4.97
4.97 10.35 -1.81 7 21.91
21.91 33.57 1.04 23 6
6 12.48 -1.32 10 10.44
10.44 13.57 -1.79 3 16.21
16.21 33.71 -1.63 1 25.15
25.15 32.68 -2.15 55 25.25
25.25 32.8 0 2 2.81
2.81 7.21 -1.84 5 5.56
5.56 32.49 -2 34 3.79
3.79 9.71 -1.83 5 5.78
5.78 33.63 -0.29 3 5.32
5.32 13.6 -1.78 6 3.07
3.07 12.26 -1.77 7 13.36
13.36 34.13 -0.63 1 3.12
3.12 12.41 -1.11 29 13.38
13.38 34.17 1.27 36 8.3
8.3 32.98 -1.18 4 13.84
13.84 54.95 0.97 15 5.24
5.24 7.95 -1.84 5 2.83
2.83 5.84 -1.85 6 8.23
8.23 12.52 -1.17 22 3.78
3.78 7.81 -1.83 5 22.06
22.06 33.54 -1.04 1 5.01
5.01 10.33 -1.81 6 22.08
22.08 33.57 1.04 24 6.03
6.03 12.44 -1.32 4 16.36
16.36 33.72 -1.63 1 24.43
24.43 50.32 0.48 4 30.23
30.23 38.96 2.57 2 2.83
2.83 7.2 -1.84 6 5.69
5.69 32.52 -2.01 32 3.82
3.82 9.7 -1.83 6 5.89
5.89 33.6 -0.29 12 5.36
5.36 13.58 -1.78 7 4.94
4.94 12.51 -0.93 4 3.11
3.11 12.26 -1.77 7 13.49
13.49 34.11 -0.63 1 3.16
3.16 12.4 -1.11 22 13.52
13.52 34.17 1.27 30 8.42
8.42 32.97 -1.18 4 13.56
13.56 53.06 0.94 12 5.27
5.27 7.93 -1.84 6 2.85
2.85 5.82 -1.84 7 8.29
8.29 12.52 -1.17 22 3.81
3.81 7.8 -1.83 7 22.22
22.22 33.54 -1.04 1 5.04
5.04 10.31 -1.81 7 22.25
22.25 33.56 1.04 24 8.75
8.75 11.21 -1.48 7 16.49
16.49 33.69 -1.63 1 8.98
8.98 11.51 -0.76 2 34.08
34.08 43.63 0 29 34.08
34.08 69.52 4.73 2 33.67
33.67 43.08 2.85 1 2.21
2.21 12.42 -1.43 14 2.86
2.86 7.18 -1.84 6 5.81
5.81 32.55 -2.01 30 3.86
3.86 9.69 -1.83 6 6.01
6.01 33.57 -0.29 3 5.41
5.41 13.56 -1.78 7 4.98
4.98 12.49 -0.93 12 3.16
3.16 12.27 -1.77 7 13.63
13.63 34.11 -0.64 1 3.22
3.22 12.43 -1.11 19 13.65
13.65 34.15 1.27 30 8.53
8.53 32.93 -1.18 4 13.55
13.55 52.26 0.93 12 5.3
5.3 7.92 -1.84 6 2.87
2.87 5.81 -1.84 7 8.35
8.35 12.51 -1.17 19 3.84
3.84 7.78 -1.83 7 22.38
22.38 33.52 -1.04 1 5.08
5.08 10.3 -1.81 7 22.4
22.4 33.54 1.04 24 6.18
6.18 12.51 -1.33 8 8.75
8.75 11.13 -1.48 8 16.64
16.64 33.7 -1.63 1 8.93
8.93 11.36 -0.75 1 34.19
34.19 43.47 0 3 34.57
34.57 69.89 4.76 29 34
34 43.19 2.86 1 2.88
2.88 7.17 -1.84 5 5.93
5.93 32.56 -2.01 37 3.89
3.89 9.67 -1.83 5 6.12
6.12 33.53 -0.29 3 5.46
5.46 13.54 -1.78 6 3.2
3.2 12.26 -1.77 8 13.76
13.76 34.11 -0.64 1 13.8
13.8 34.15 1.27 36 8.65
8.65 32.92 -1.18 6 13.43
13.43 51.03 0.91 19 5.33
5.33 7.9 -1.84 5 2.88
2.88 5.79 -1.84 9 8.42
8.42 12.53 -1.18 17 3.87
3.87 7.77 -1.83 6 22.55
22.55 33.5 -1.04 1 5.12
5.12 10.28 -1.81 6 22.58
22.58 33.54 1.05 25 6.22
6.22 12.48 -1.33 8 8.75
8.75 11.04 -1.47 9 16.78
16.78 33.67 -1.64 1 8.89
8.89 11.22 -0.74 1 24.14
24.14 48.41 0.47 2 34.68
34.68 69.51 4.74 33 30.64
30.64 38.63 2.57 17 2.91
2.91 7.17 -1.84 5 6.05
6.05 32.56 -2.01 39 3.93
3.93 9.67 -1.83 5 6.25
6.25 33.52 -0.29 3 5.51
5.51 13.52 -1.78 6 3.25
3.25 12.26 -1.77 8 13.21
13.21 32.39 -0.61 24 13.93
13.93 34.13 1.27 30 8.88
8.88 33.3 -1.19 77 9.03
9.03 33.83 0.6 75 5.35
5.35 7.88 -1.84 5 2.9
2.9 5.78 -1.84 9 8.48
8.48 12.52 -1.18 14 3.89
3.89 7.75 -1.83 6 22.7
22.7 33.48 -1.05 1 5.16
5.16 10.26 -1.81 6 22.73
22.73 33.51 1.05 26 8.73
8.73 10.94 -1.46 8 16.93
16.93 33.66 -1.64 1 8.85
8.85 11.1 -0.74 2 24.3
24.3 48.31 0.47 6 80.16
80.16 100.4 0 4 34.78
34.78 69.07 4.72 2 30.8
30.8 38.55 2.57 3 2.93
2.93 7.15 -1.84 5 6.17
6.17 32.56 -2.01 37 3.96
3.96 9.64 -1.83 5 6.36
6.36 33.48 -0.29 3 5.56
5.56 13.53 -1.79 6 5.14
5.14 12.5 -0.94 13 3.3
3.3 12.27 -1.77 8 13.32
13.32 32.34 -0.61 24 3.36
3.36 12.45 -1.12 6 14.07
14.07 34.13 1.28 33 8.9
8.9 32.9 -1.18 17 13.22
13.22 48.83 0.87 12 5.38
5.38 7.86 -1.84 5 2.92
2.92 5.76 -1.84 13 8.56
8.56 12.54 -1.18 19 3.92
3.92 7.74 -1.83 6 22.86
22.86 33.47 -1.05 1 5.19
5.19 10.25 -1.81 6 22.87
22.87 33.46 1.05 26 6.34
6.34 12.5 -1.34 8 8.72
8.72 10.85 -1.45 9 16.31
16.31 32.16 -1.57 28 8.84
8.84 11.01 -0.73 3 80.68
80.68 100.35 0 1 34.5
34.5 67.96 4.65 3 34.52
34.52 42.92 2.87 12 2.39
2.39 12.43 -1.43 16 2.96
2.96 7.15 -1.84 6 6.27
6.27 32.52 -2.01 32 4
4 9.64 -1.83 6 6.47
6.47 33.46 -0.29 3 5.59
5.59 13.48 -1.78 7 5.18
5.18 12.46 -0.93 6 3.37
3.37 12.38 -1.79 10 14.18
14.18 34.1 -0.64 1 3.41
3.41 12.45 -1.12 22 14.2
14.2 34.13 1.28 35 8.98
8.98 32.79 -1.18 6 13.04
13.04 47.55 0.85 6 5.4
5.4 7.84 -1.84 5 2.94
2.94 5.75 -1.84 15 8.61
8.61 12.53 -1.19 9 3.94
3.94 7.72 -1.83 6 23.01
23.01 33.44 -1.05 1 5.23
5.23 10.22 -1.81 6 23.03
23.03 33.46 1.05 19 6.39
6.39 12.49 -1.34 9 8.73
8.73 10.79 -1.45 7 16.43
16.43 32.12 -1.57 22 8.84
8.84 10.93 -0.73 5 34.85
34.85 68.06 4.67 4 2.98
2.98 7.13 -1.84 5 6.39
6.39 32.53 -2.01 35 4.02
4.02 9.62 -1.83 5 6.59
6.59 33.43 -0.29 3 5.66
5.66 13.49 -1.78 6 3.42
3.42 12.39 -1.8 14 14.32
14.32 34.1 -0.64 1 14.34
14.34 34.12 1.28 31 9.11
9.11 32.8 -1.18 4 13.05
13.05 46.92 0.84 19 5.43
5.43 7.82 -1.84 6 2.96
2.96 5.73 -1.83 14 8.68
8.68 12.53 -1.19 12 3.98
3.98 7.72 -1.83 7 22.14
22.14 31.93 -1 1 5.26
5.26 10.2 -1.81 7 8.7
8.7 10.67 -1.44 6 17.36
17.36 33.65 -1.65 1 8.87
8.87 10.89 -0.73 7 17.49
17.49 33.89 0.33 15 35.1
35.1 67.96 4.67 23 33.84
33.84 41.47 2.79 6 3
3 7.12 -1.84 6 6.51
6.51 32.49 -2.01 34 4.06
4.06 9.6 -1.83 6 6.71
6.71 33.41 -0.29 3 5.7
5.7 13.46 -1.78 6 5.29
5.29 12.49 -0.94 6 3.46
3.46 12.36 -1.79 11 14.46
14.46 34.08 -0.64 1 14.48
14.48 34.13 1.28 37 12.84
12.84 45.53 0.81 9 5.46
5.46 7.8 -1.84 5 2.98
2.98 5.72 -1.83 17 8.74
8.74 12.52 -1.19 11 4
4 7.7 -1.83 6 22.26
22.26 31.87 -1.01 19 5.3
5.3 10.19 -1.81 6 6.5
6.5 12.48 -1.34 6 8.72
8.72 10.62 -1.43 4 17.5
17.5 33.63 -1.65 1 8.86
8.86 10.8 -0.72 6 17.62
17.62 33.84 0.33 71 35.49
35.49 68.1 4.69 6 34.05
34.05 41.42 2.79 3 3.03
3.03 7.1 -1.84 5 6.63
6.63 32.5 -2.02 31 4.09
4.09 9.58 -1.83 5 6.82
6.82 33.37 -0.29 3 5.73
5.73 13.41 -1.78 6 5.35
5.35 12.49 -0.94 9 3.51
3.51 12.35 -1.79 11 14.59
14.59 34.05 -0.64 1 3.55
3.55 12.47 -1.12 13 14.62
14.62 34.12 1.28 30 12.54
12.54 43.94 -1.58 12 12.86
12.86 45.01 0.8 29 5.48
5.48 7.77 -1.84 6 2.99
2.99 5.71 -1.83 14 8.81
8.81 12.53 -1.2 7 4.03
4.03 7.69 -1.83 7 22.33
22.33 31.74 -1 4 5.34
5.34 10.17 -1.81 7 28.78
28.78 40.87 1.29 4 6.54
6.54 12.47 -1.35 9 8.73
8.73 10.55 -1.43 4 17.64
17.64 33.61 -1.65 1 8.82
8.82 10.68 -0.72 4 17.75
17.75 33.81 0.33 19 35.99
35.99 68.5 4.73 1 34.28
34.28 41.42 2.8 4 2.57
2.57 12.44 -1.44 19 3.05
3.05 7.1 -1.84 5 6.74
6.74 32.49 -2.02 32 4.13
4.13 9.57 -1.83 5 6.93
6.93 33.33 -0.29 2 5.8
5.8 13.43 -1.78 6 3.55
3.55 12.34 -1.79 11 14.72
14.72 34.06 -0.64 1 3.59
3.59 12.44 -1.12 5 14.76
14.76 34.12 1.29 36 12.46
12.46 43.1 -1.55 9 12.66
12.66 43.78 0.78 4 5.5
5.5 7.75 -1.84 5 3.02
3.02 5.7 -1.83 19 8.88
8.88 12.54 -1.2 18 4.05
4.05 7.67 -1.83 6 22.51
22.51 31.75 -1.01 1 5.37
5.37 10.16 -1.81 6 33.14
33.14 46.73 1.48 4 8.73
8.73 10.49 -1.42 3 12.46
12.46 23.54 -1.16 6 8.85
8.85 10.64 -0.72 4 36.1
36.1 68.13 4.71 24 34.57
34.57 41.48 2.81 9 3.08
3.08 7.09 -1.84 5 6.86
6.86 32.49 -2.02 33 4.16
4.16 9.56 -1.83 6 7.04
7.04 33.29 -0.29 2 5.84
5.84 13.4 -1.78 6 3.59
3.59 12.33 -1.79 11 14.86
14.86 34.04 -0.64 1 6.71
6.71 22.95 -2.08 16 14.89
14.89 34.1 1.29 36 12.4
12.4 42.33 -1.53 9 12.66
12.66 43.19 0.77 39 5.53
5.53 7.74 -1.84 6 3.03
3.03 5.69 -1.83 16 8.95
8.95 12.54 -1.2 6 4.08
4.08 7.66 -1.83 7 22.67
22.67 31.75 -1.01 2 5.41
5.41 10.13 -1.81 7 33.2
33.2 46.47 1.48 15 6.67
6.67 12.51 -1.35 3 8.76
8.76 10.45 -1.42 3 12.47
12.47 23.37 -1.15 9 8.87
8.87 10.58 -0.71 4 40.27
40.27 48.01 0 12 36.22
36.22 67.79 4.69 15 3.11
3.11 7.09 -1.84 6 6.97
6.97 32.46 -2.02 25 4.19
4.19 9.54 -1.83 6 7.16
7.16 33.28 -0.29 3 5.88
5.88 13.36 -1.78 7 5.49
5.49 12.48 -0.94 11 3.64
3.64 12.32 -1.79 9 15.01
15.01 34.06 -0.64 1 15.03
15.03 34.1 1.29 30 12.33
12.33 41.56 -1.5 12 5.56
5.56 7.72 -1.84 5 3.06
3.06 5.68 -1.84 23 9.02
9.02 12.54 -1.21 7 4.11
4.11 7.64 -1.83 6 22.84
22.84 31.75 -1.01 2 5.44
5.44 10.12 -1.81 6 33.53
33.53 46.58 1.49 19 6.72
6.72 12.49 -1.36 13 8.78
8.78 10.4 -1.42 3 12.54
12.54 23.31 -1.15 30 8.87
8.87 10.51 -0.71 4 23.86
23.86 44.31 0.43 6 40.38
40.38 47.8 0 1 36.51
36.51 67.76 4.7 1 2.7
2.7 12.41 -1.44 4 3.13
3.13 7.07 -1.84 5 7.11
7.11 32.53 -2.02 30 4.23
4.23 9.53 -1.83 5 7.29
7.29 33.29 -0.29 19 5.92
5.92 13.32 -1.78 6 5.55
5.55 12.47 -0.95 4 3.68
3.68 12.32 -1.8 10 15.14
15.14 34.03 -0.64 1 3.74
3.74 12.47 -1.13 23 15.18
15.18 34.09 1.29 35 12.28
12.28 40.83 -1.48 12 12.38
12.38 41.16 0.74 6 5.59
5.59 7.7 -1.84 5 3.08
3.08 5.67 -1.84 26 9.09
9.09 12.54 -1.21 15 4.13
4.13 7.62 -1.83 6 23.02
23.02 31.76 -1.01 2 5.48
5.48 10.1 -1.81 6 33.68
33.68 46.43 1.49 21 8.81
8.81 10.35 -1.42 3 12.64
12.64 23.3 -1.15 28 8.89
8.89 10.46 -0.71 4 24.01
24.01 44.21 0.43 2 35.17
35.17 41.33 0 15 39.68
39.68 46.59 3.19 4 13.42
13.42 24.67 3.44 1 2.76
2.76 12.46 -1.44 14 3.16
3.16 7.07 -1.85 6 7.21
7.21 32.45 -2.02 27 4.26
4.26 9.51 -1.83 6 7.4
7.4 33.22 -0.29 70 5.63
5.63 12.55 -1.68 4 3.73
3.73 12.31 -1.8 10 15.28
15.28 34.02 -0.65 1 15.31
15.31 34.07 1.29 30 12.22
12.22 40.12 -1.45 12 12.52
12.52 41.1 0.74 51 5.62
5.62 7.68 -1.84 5 3.1
3.1 5.67 -1.84 29 9.15
9.15 12.54 -1.21 4 4.16
4.16 7.61 -1.83 6 28.35
28.35 38.83 -1.24 3 5.51
5.51 10.08 -1.81 5 33.91
33.91 46.41 1.49 15 6.84
6.84 12.5 -1.36 3 8.81
8.81 10.29 -1.41 1 12.74
12.74 23.29 -1.15 27 8.88
8.88 10.38 -0.71 3 13.49
13.49 24.66 0.24 2 35.47
35.47 41.4 0 19 13.52
13.52 24.68 1.71 5 40.09
40.09 46.75 3.21 3 13.58
13.58 24.77 3.45 9 3.18
3.18 7.06 -1.84 6 7.32
7.32 32.45 -2.02 1 4.29
4.29 9.5 -1.83 6 7.51
7.51 33.17 -0.29 9 5.63
5.63 12.45 -1.67 7 5.66
5.66 12.5 -0.95 9 3.77
3.77 12.31 -1.8 9 15.41
15.41 34.01 -0.65 1 15.44
15.44 34.06 1.29 30 5.65
5.65 7.67 -1.84 6 3.12
3.12 5.65 -1.83 22 9.24
9.24 12.57 -1.22 11 4.18
4.18 7.59 -1.83 7 21.99
21.99 29.9 -0.96 36 5.55
5.55 10.06 -1.81 6 34.08
34.08 46.32 1.49 1 6.89
6.89 12.5 -1.36 11 8.81
8.81 10.21 -1.41 1 12.85
12.85 23.3 -1.16 31 8.91
8.91 10.34 -0.71 3 13.59
13.59 24.62 0.24 12 13.59
13.59 24.61 1.71 17 40.21
40.21 46.56 3.21 1 13.63
13.63 24.65 3.44 34 3.21
3.21 7.04 -1.84 6 7.44
7.44 32.43 -2.02 1 4.32
4.32 9.48 -1.83 6 7.62
7.62 33.15 -0.29 3 5.68
5.68 12.44 -1.67 8 5.7
5.7 12.47 -0.95 23 3.82
3.82 12.29 -1.8 10 15.55
15.55 34 -0.65 1 3.88
3.88 12.46 -1.13 3 15.59
15.59 34.05 1.3 32 10.16
10.16 32.57 -1.18 15 12.26
12.26 39.26 0.71 3 5.66
5.66 7.63 -1.84 6 3.14
3.14 5.65 -1.84 22 9.27
9.27 12.53 -1.22 6 4.21
4.21 7.58 -1.83 7 22.07
22.07 29.79 -0.96 3 5.59
5.59 10.05 -1.81 7 22.15
22.15 29.88 0.96 2 8.79
8.79 10.12 -1.4 1 12.98
12.98 23.32 -1.16 26 8.95
8.95 10.31 -0.71 4 13.61
13.61 24.44 0.24 14 34.86
34.86 40.1 0 22 13.61
13.61 24.43 1.7 14 41.06
41.06 47.19 3.26 9 13.73
13.73 24.63 3.45 27 2.9
2.9 12.47 -1.45 9 3.23
3.23 7.03 -1.84 5 7.58
7.58 32.52 -2.03 1 4.36
4.36 9.46 -1.82 5 7.74
7.74 33.12 -0.29 4 5.73
5.73 12.42 -1.67 8 5.75
5.75 12.46 -0.95 25 3.86
3.86 12.29 -1.8 12 15.7
15.7 33.99 -0.65 1 3.93
3.93 12.46 -1.13 20 15.73
15.73 34.04 1.3 36 10.28
10.28 32.52 -1.18 42 12.39
12.39 39.19 0.7 64 5.7
5.7 7.62 -1.84 5 3.16
3.16 5.64 -1.84 28 9.35
9.35 12.53 -1.22 3 4.24
4.24 7.56 -1.83 5 23.7
23.7 31.75 -1.02 9 5.62
5.62 10.02 -1.81 7 30.15
30.15 40.37 1.3 1 8.8
8.8 10.05 -1.39 1 13.06
13.06 23.28 -1.16 21 8.96
8.96 10.25 -0.7 4 13.61
13.61 24.26 0.24 14 34.87
34.87 39.83 0 15 13.62
13.62 24.24 1.69 14 41.61
41.61 47.5 3.29 1 13.84
13.84 24.63 3.46 12 2.94
2.94 12.45 -1.45 9 3.26
3.26 7.02 -1.84 6 7.69
7.69 32.46 -2.03 1 4.39
4.39 9.45 -1.83 6 7.86
7.86 33.09 -0.29 4 5.77
5.77 12.41 -1.67 7 5.81
5.81 12.47 -0.95 15 3.91
3.91 12.29 -1.8 10 15.84
15.84 33.98 -0.65 1 15.87
15.87 34.03 1.3 30 12.07
12.07 37.76 -1.37 9 5.72
5.72 7.6 -1.84 6 3.19
3.19 5.64 -1.84 19 9.44
9.44 12.57 -1.23 12 4.26
4.26 7.54 -1.83 7 23.85
23.85 31.73 -1.03 3 5.65
5.65 10 -1.81 7 30.31
30.31 40.29 1.31 42 7.07
7.07 12.51 -1.37 10 8.83
8.83 10.02 -1.39 1 13.84
13.84 24.48 -1.22 3 8.99
8.99 10.21 -0.7 3 13.61
13.61 24.06 0.24 14 35
35 39.72 0 12 13.62
13.62 24.05 1.68 14 13.5
13.5 23.84 3.35 1 3.28
3.28 7.01 -1.84 5 7.8
7.8 32.43 -2.03 1 4.42
4.42 9.43 -1.83 5 7.97
7.97 33.06 -0.29 6 5.83
5.83 12.41 -1.67 6 3.95
3.95 12.27 -1.8 10 15.97
15.97 33.97 -0.65 1 16
16 34.03 1.3 36 12.03
12.03 37.18 -1.35 15 5.74
5.74 7.57 -1.84 5 3.2
3.2 5.63 -1.84 22 9.41
9.41 12.44 -1.22 1 4.29
4.29 7.53 -1.83 5 27.34
27.34 36.11 -1.17 3 5.68
5.68 9.98 -1.81 6 30.35
30.35 40.07 1.3 1 8.86
8.86 9.98 -1.39 1 19.11
19.11 33.52 -1.68 1 9.01
9.01 10.17 -0.7 3 13.6
13.6 23.85 0.23 19 35.05
35.05 39.5 0 17 13.61
13.61 23.84 1.67 18 35.98
35.98 40.51 2.82 1 13.57
13.57 23.76 3.35 9 3.3
3.3 6.99 -1.84 5 7.93
7.93 32.47 -2.03 29 4.46
4.46 9.42 -1.83 5 8.08
8.08 33.03 -0.29 9 6.2
6.2 13.09 -1.77 6 4
4 12.27 -1.8 8 16.11
16.11 33.96 -0.65 1 4.08
4.08 12.47 -1.14 10 16.15
16.15 34.01 1.3 30 12.02
12.02 36.71 -1.34 15 12.2
12.2 37.22 0.67 25 5.77
5.77 7.55 -1.83 6 3.23
3.23 5.63 -1.85 16 8.85
8.85 11.61 -1.14 26 4.32
4.32 7.51 -1.83 6 5.72
5.72 9.96 -1.81 6 25.12
25.12 32.92 1.07 70 7.2
7.2 12.52 -1.38 3 8.92
8.92 9.98 -1.4 1 13.55
13.55 23.57 -1.18 6 9.04
9.04 10.12 -0.7 3 13.6
13.6 23.65 0.23 23 35.26
35.26 39.43 0 24 13.6
13.6 23.65 1.66 23 35.98
35.98 40.22 2.81 9 13.62
13.62 23.64 3.34 28 3.08
3.08 12.45 -1.45 17 3.33
3.33 6.98 -1.84 5 3.09
3.09 12.43 -0.77 4 4.49
4.49 9.4 -1.82 5 8.2
8.2 32.99 -0.29 12 6.3
6.3 13.18 -1.78 7 5.98
5.98 12.5 -0.96 12 4.04
4.04 12.25 -1.8 8 16.26
16.26 33.95 -0.65 1 4.12
4.12 12.44 -1.14 7 16.29
16.29 34.01 1.3 30 12
12 36.22 -1.32 15 12.31
12.31 37.14 0.67 24 5.8
5.8 7.53 -1.83 6 3.25
3.25 5.61 -1.84 13 8.77
8.77 11.42 -1.12 7 4.34
4.34 7.5 -1.83 6 24.4
24.4 31.75 -1.04 12 5.76
5.76 9.94 -1.81 6 25.31
25.31 32.93 1.07 23 7.24
7.24 12.49 -1.38 10 8.93
8.93 9.92 -1.39 1 13.64
13.64 23.54 -1.18 22 9.09
9.09 10.1 -0.7 7 13.67
13.67 23.58 0.23 29 35.38
35.38 39.29 0 24 13.71
13.71 23.62 1.66 28 35.97
35.97 39.92 2.8 17 13.72
13.72 23.63 3.34 28 3.11
3.11 12.42 -1.45 23 3.35
3.35 6.97 -1.84 5 3.13
3.13 12.41 -0.77 22 4.52
4.52 9.39 -1.83 5 8.32
8.32 32.98 -0.29 9 6.36
6.36 13.18 -1.79 6 6.02
6.02 12.46 -0.96 3 4.09
4.09 12.25 -1.8 10 16.4
16.4 33.95 -0.65 24 16.43
16.43 33.99 1.31 37 12.04
12.04 35.91 -1.31 4 5.82
5.82 7.51 -1.83 5 3.27
3.27 5.61 -1.85 9 8.7
8.7 11.25 -1.11 8 4.37
4.37 7.49 -1.83 6 24.64
24.64 31.85 -1.04 25 5.79
5.79 9.92 -1.81 5 25.44
25.44 32.85 1.08 6 9
9 9.93 -1.4 2 13.74
13.74 23.53 -1.18 27 9.11
9.11 10.06 -0.7 14 13.77
13.77 23.58 0.23 21 35.62
35.62 39.3 0 17 13.8
13.8 23.6 1.67 16 36.18
36.18 39.88 2.81 32 13.83
13.83 23.63 3.35 9 3.15
3.15 12.4 -1.45 18 3.38
3.38 6.96 -1.84 6 3.16
3.16 12.38 -0.77 18 4.55
4.55 9.36 -1.82 6 8.43
8.43 32.95 -0.29 9 6.4
6.4 13.15 -1.78 6 4.13
4.13 12.24 -1.8 9 16.53
16.53 33.93 -0.65 1 16.57
16.57 33.99 1.31 35 11.68
11.68 34.45 -1.26 41 5.85
5.85 7.5 -1.84 5 3.29
3.29 5.59 -1.85 7 8.68
8.68 11.14 -1.1 10 4.39
4.39 7.47 -1.83 5 24.74
24.74 31.74 -1.04 9 5.83
5.83 9.91 -1.81 5 33.84
33.84 43.4 1.43 15 7.36
7.36 12.5 -1.39 4 9.07
9.07 9.93 -1.4 3 13.8
13.8 23.44 -1.18 6 9.17
9.17 10.05 -0.7 17 13.83
13.83 23.49 0.23 3 35.56
35.56 38.96 0 43 13.86
13.86 23.52 1.66 1 36.28
36.28 39.71 2.8 17 3.21
3.21 12.43 -1.45 20 3.4
3.4 6.94 -1.84 6 3.21
3.21 12.4 -0.77 6 4.58
4.58 9.35 -1.82 6 8.54
8.54 32.92 -0.29 12 6.44
6.44 13.13 -1.78 7 6.15
6.15 12.52 -0.97 9 4.17
4.17 12.23 -1.81 8 16.67
16.67 33.92 -0.65 1 4.26
4.26 12.45 -1.14 22 16.71
16.71 33.97 1.31 34 11.73
11.73 34.22 -1.25 1 12.06
12.06 35.16 0.64 15 5.88
5.88 7.48 -1.84 5 3.31
3.31 5.58 -1.85 6 8.67
8.67 11.05 -1.1 16 4.42
4.42 7.46 -1.83 5 24.93
24.93 31.75 -1.04 4 5.87
5.87 9.89 -1.81 5 7.43
7.43 12.52 -1.39 11 9.16
9.16 9.97 -1.41 8 19.86
19.86 33.48 -1.69 1 9.23
9.23 10.05 -0.71 19 36.64
36.64 39.86 0 1 36.5
36.5 39.68 2.81 9 3.26
3.26 12.44 -1.45 1 3.43
3.43 6.94 -1.84 5 3.27
3.27 12.41 -0.78 4 4.62
4.62 9.33 -1.82 5 8.67
8.67 32.9 -0.29 9 6.49
6.49 13.1 -1.78 6 6.2
6.2 12.49 -0.97 7 4.22
4.22 12.21 -1.8 8 16.82
16.82 33.91 -0.66 1 16.86
16.86 33.97 1.31 36 11.88
11.88 34.24 -1.25 19 12.18
12.18 35.09 0.64 51 5.91
5.91 7.46 -1.84 7 3.33
3.33 5.57 -1.85 6 8.66
8.66 10.96 -1.09 14 4.45
4.45 7.45 -1.83 7 25.09
25.09 31.73 -1.05 9 5.9
5.9 9.87 -1.81 6 34.76
34.76 43.92 1.45 9 9.2
9.2 9.94 -1.41 7 20.03
20.03 33.47 -1.7 1 9.29
9.29 10.04 -0.71 10 37.06
37.06 40 2.84 3 3.45
3.45 6.92 -1.84 6 3.31
3.31 12.41 -0.78 4 4.65
4.65 9.32 -1.83 7 8.92
8.92 33.4 -0.29 59 6.53
6.53 13.07 -1.78 7 9.05
9.05 33.88 1.52 3 4.26
4.26 12.2 -1.81 7 16.96
16.96 33.89 -0.66 1 17
17 33.94 1.31 30 11.9
11.9 33.91 -1.24 1 12.03
12.03 34.26 0.62 15 5.94
5.94 7.44 -1.84 7 3.35
3.35 5.55 -1.84 6 8.67
8.67 10.89 -1.09 14 4.47
4.47 7.42 -1.83 7 25.24
25.24 31.68 -1.05 12 5.94
5.94 9.84 -1.81 6 34.29
34.29 43.03 1.43 22 7.55
7.55 12.52 -1.4 7 9.27
9.27 9.95 -1.42 7 19.3
19.3 32 -1.63 19 9.35
9.35 10.03 -0.71 11 37.19
37.19 39.85 2.84 2 3.35
3.35 12.44 -1.46 2 3.47
3.47 6.91 -1.84 6 3.36
3.36 12.41 -0.78 6 4.69
4.69 9.31 -1.83 5 8.9
8.9 32.86 -0.29 17 6.58
6.58 13.05 -1.78 6 6.32
6.32 12.52 -0.97 7 4.3
4.3 12.18 -1.8 7 16.26
16.26 32.21 -0.62 19 4.41
4.41 12.46 -1.15 5 17.14
17.14 33.94 1.32 36 12.04
12.04 33.94 -1.25 1 12.14
12.14 34.19 0.62 66 5.96
5.96 7.42 -1.84 6 3.37
3.37 5.55 -1.85 5 8.67
8.67 10.81 -1.08 23 4.5
4.5 7.41 -1.83 6 25.43
25.43 31.7 -1.05 2 5.97
5.97 9.83 -1.81 5 34.44
34.44 42.9 1.43 1 7.6
7.6 12.52 -1.4 10 9.32
9.32 9.92 -1.42 15 19.4
19.4 31.93 -1.63 15 9.39
9.39 10.02 -0.71 20 23.36
23.36 38.43 0.39 3 36.62
36.62 39.01 0 1 40.89
40.89 43.52 3.11 1 3.4
3.4 12.44 -1.46 16 3.5
3.5 6.9 -1.84 6 3.41
3.41 12.42 -0.78 6 4.72
4.72 9.29 -1.83 6 9.01
9.01 32.82 -0.29 2 6.62
6.62 13.02 -1.78 7 6.36
6.36 12.51 -0.97 9 4.34
4.34 12.16 -1.8 7 16.4
16.4 32.22 -0.63 17 4.46
4.46 12.46 -1.15 12 17.28
17.28 33.92 1.32 29 12.19
12.19 34.01 -1.25 1 12.27
12.27 34.19 0.62 41 5.98
5.98 7.39 -1.84 6 3.39
3.39 5.53 -1.85 6 8.67
8.67 10.74 -1.08 18 4.52
4.52 7.39 -1.83 7 25.54
25.54 31.62 -1.05 1 6
6 9.81 -1.81 6 9.38
9.38 9.93 -1.43 1 20.47
20.47 33.42 -1.7 1 9.45
9.45 10.01 -0.71 16 23.46
23.46 38.29 0.39 12 36.27
36.27 38.36 0 24 31.13
31.13 50.76 3.64 2 41.03
41.03 43.37 3.11 2 3.52
3.52 6.89 -1.84 5 3.45
3.45 12.41 -0.78 5 4.74
4.74 9.26 -1.82 5 9.12
9.12 32.78 -0.29 12 6.66
6.66 13 -1.78 6 4.39
4.39 12.15 -1.8 5 17.4
17.4 33.88 -0.66 1 17.43
17.43 33.91 1.32 35 6.01
6.01 7.37 -1.84 5 3.41
3.41 5.52 -1.85 5 8.67
8.67 10.67 -1.07 21 4.55
4.55 7.37 -1.83 6 6.04
6.04 9.8 -1.81 5 7.74
7.74 12.54 -1.41 7 20.62
20.62 33.39 -1.71 17 9.52
9.52 10 -0.71 22 23.6
23.6 38.2 0.39 2 36.28
36.28 38.1 0 23 31.35
31.35 50.73 3.64 12 3.55
3.55 6.88 -1.84 4 3.5
3.5 12.42 -0.78 6 4.78
4.78 9.25 -1.82 6 9.24
9.24 32.74 -0.29 9 6.71
6.71 12.96 -1.78 6 6.48
6.48 12.5 -0.98 6 4.43
4.43 12.13 -1.8 6 17.54
17.54 33.85 -0.66 1 17.57
17.57 33.9 1.32 35 12.48
12.48 34.03 -1.25 1 6.04
6.04 7.35 -1.84 5 3.42
3.42 5.5 -1.84 5 8.69
8.69 10.61 -1.07 20 4.58
4.58 7.36 -1.83 5 9.04
9.04 11.04 -0.37 2 6.08
6.08 9.78 -1.81 5 7.78
7.78 12.51 -1.41 10 14.71
14.71 23.64 -1.21 99 9.59
9.59 10.01 -0.72 22 36.56
36.56 38.12 0 19 31.64
31.64 50.77 3.65 39 3.55
3.55 12.48 -1.47 6 3.57
3.57 6.85 -1.84 5 3.55
3.55 12.42 -0.78 6 4.8
4.8 9.22 -1.82 6 9.35
9.35 32.71 -0.29 9 6.75
6.75 12.94 -1.78 7 6.53
6.53 12.51 -0.98 13 4.47
4.47 12.11 -1.8 6 17.68
17.68 33.84 -0.66 1 4.62
4.62 12.48 -1.15 15 17.71
17.71 33.89 1.32 34 12.62
12.62 34.05 -1.26 1 6.07
6.07 7.33 -1.84 5 3.44
3.44 5.49 -1.84 5 8.69
8.69 10.54 -1.07 23 4.6
4.6 7.35 -1.83 5 9
9 10.91 -0.36 3 6.12
6.12 9.76 -1.81 5 9.58
9.58 9.92 -1.44 4 14.78
14.78 23.57 -1.21 107 9.65
9.65 10.01 -0.72 24 21.09
21.09 33.63 0.34 12 31.82
31.82 50.69 3.65 54 3.58
3.58 12.44 -1.46 12 3.59
3.59 6.85 -1.84 4 3.59
3.59 12.42 -0.78 7 4.84
4.84 9.21 -1.82 7 9.46
9.46 32.68 -0.29 12 6.79
6.79 12.9 -1.78 7 6.58
6.58 12.5 -0.98 6 4.5
4.5 12.08 -1.8 7 17.82
17.82 33.83 -0.66 1 4.66
4.66 12.46 -1.15 4 17.86
17.86 33.89 1.33 30 12.74
12.74 34.03 -1.26 1 6.09
6.09 7.32 -1.84 6 3.46
3.46 5.48 -1.84 6 8.69
8.69 10.46 -1.06 17 4.63
4.63 7.33 -1.83 6 9.08
9.08 10.93 -0.36 1 6.15
6.15 9.73 -1.81 6 39.96
39.96 48.06 1.62 12 7.92
7.92 12.54 -1.42 8 9.68
9.68 9.96 -1.45 1 21.1
21.1 33.39 -1.72 17 9.72
9.72 10.01 -0.72 18 21.22
21.22 33.58 0.34 61 37.23
37.23 38.29 0 4 31.97
31.97 50.54 3.65 30 42.07
42.07 43.24 3.14 9 3.62
3.62 6.83 -1.84 5 3.64
3.64 12.42 -0.78 7 4.86
4.86 9.18 -1.82 7 9.58
9.58 32.65 -0.29 12 6.83
6.83 12.88 -1.78 9 6.64
6.64 12.5 -0.98 8 4.55
4.55 12.08 -1.8 5 17.97
17.97 33.82 -0.66 1 18
18 33.87 1.33 29 12.87
12.87 34.03 -1.26 1 12.99
12.99 34.31 0.63 17 6.11
6.11 7.29 -1.84 6 3.48
3.48 5.47 -1.84 6 8.71
8.71 10.41 -1.06 19 4.65
4.65 7.32 -1.83 7 9
9 10.76 -0.36 2 6.18
6.18 9.72 -1.81 6 40.17
40.17 47.97 1.62 9 7.96
7.96 12.51 -1.42 8 9.72
9.72 9.94 -1.45 1 21.25
21.25 33.37 -1.72 1 9.79
9.79 10.01 -0.72 20 21.34
21.34 33.5 0.34 15 37.83
37.83 38.65 0 1 32.02
32.02 50.22 3.64 29 29.26
29.26 29.87 2.18 15 3.64
3.64 6.83 -1.84 4 3.69
3.69 12.43 -0.78 7 4.89
4.89 9.15 -1.82 8 9.69
9.69 32.61 -0.29 12 6.87
6.87 12.84 -1.78 9 6.7
6.7 12.52 -0.98 19 4.59
4.59 12.05 -1.8 4 18.12
18.12 33.82 -0.66 1 4.76
4.76 12.47 -1.16 4 18.15
18.15 33.86 1.33 35 11.31
11.31 29.57 -1.09 23 13.12
13.12 34.27 0.63 4 6.14
6.14 7.27 -1.84 5 3.5
3.5 5.45 -1.84 5 8.73
8.73 10.36 -1.06 22 4.68
4.68 7.29 -1.83 6 9.05
9.05 10.74 -0.36 1 6.21
6.21 9.69 -1.81 5 40.08
40.08 47.5 1.61 2 9.78
9.78 9.92 -1.45 5 21.39
21.39 33.33 -1.72 1 9.86
9.86 10 -0.73 24 23.32
23.32 36.32 0.37 12 29.34
29.34 29.75 0 79 32.02
32.02 49.85 3.62 37 29.38
29.38 29.77 2.18 75 3.74
3.74 12.47 -1.47 9 3.67
3.67 6.81 -1.84 6 3.74
3.74 12.43 -0.78 7 4.92
4.92 9.12 -1.82 8 9.81
9.81 32.58 -0.29 1 6.91
6.91 12.81 -1.78 9 12.51
12.51 41.54 1.88 3 6.75
6.75 12.5 -0.98 8 4.63
4.63 12.03 -1.8 6 18.27
18.27 33.81 -0.67 1 4.81
4.81 12.47 -1.16 13 18.3
18.3 33.84 1.33 33 11.34
11.34 29.32 -1.09 61 13.27
13.27 34.31 0.63 19 6.17
6.17 7.25 -1.84 5 3.52
3.52 5.44 -1.84 4 8.75
8.75 10.31 -1.05 23 4.7
4.7 7.27 -1.83 5 6.25
6.25 9.68 -1.81 5 40.23
40.23 47.35 1.61 12 8.11
8.11 12.54 -1.43 9 9.85
9.85 9.92 -1.46 4 21.57
21.57 33.37 -1.73 6 9.93
9.93 10.01 -0.73 21 23.36
23.36 36.12 0.37 1 31.83
31.83 49.16 3.58 29 3.78
3.78 12.46 -1.47 8 3.69
3.69 6.8 -1.84 6 3.78
3.78 12.43 -0.79 8 4.95
4.95 9.1 -1.81 10 9.92
9.92 32.55 -0.29 12 6.96
6.96 12.8 -1.78 9 12.47
12.47 40.93 1.85 15 6.81
6.81 12.5 -0.99 8 4.67
4.67 12.02 -1.8 6 18.41
18.41 33.8 -0.67 1 18.44
18.44 33.84 1.33 28 11.44
11.44 29.31 -1.09 70 13.48
13.48 24.72 2.45 3 13.52
13.52 24.8 4.97 8 6.19
6.19 7.23 -1.84 6 3.54
3.54 5.43 -1.84 4 8.77
8.77 10.26 -1.05 19 4.73
4.73 7.27 -1.83 7 6.29
6.29 9.66 -1.81 7 40.61
40.61 47.48 1.62 1 8.14
8.14 12.49 -1.43 7 9.94
9.94 9.94 -1.47 3 21.7
21.7 33.3 -1.73 1 10
10 10.01 -0.73 14 23.21
23.21 35.61 0.37 4 36.62
36.62 36.63 0 27 31.91
31.91 48.91 3.56 25 3.72
3.72 6.79 -1.84 5 3.83
3.83 12.43 -0.79 8 4.97
4.97 9.07 -1.81 18 10.03
10.03 32.52 -0.29 9 7.01
7.01 12.78 -1.78 11 12.45
12.45 40.35 1.83 19 6.86
6.86 12.5 -0.99 24 4.71
4.71 11.99 -1.8 5 13.52
13.52 24.61 -0.48 5 13.55
13.55 24.66 0.97 8 11.56
11.56 29.3 -1.09 75 13.55
13.55 24.65 2.45 24 13.56
13.56 24.66 4.95 24 6.22
6.22 7.2 -1.84 5 3.55
3.55 5.41 -1.84 4 8.78
8.78 10.21 -1.05 32 4.75
4.75 7.24 -1.83 5 6.32
6.32 9.63 -1.81 5 35.34
35.34 41.03 1.4 25 8.23
8.23 12.54 -1.43 4 9.96
9.96 9.89 -1.46 2 21.88
21.88 33.32 -1.73 1 10.06
10.06 10.01 -0.73 20 22.11
22.11 33.66 0.35 12 36.64
36.64 36.4 0 31 32.11
32.11 48.86 3.57 12 41.34
41.34 41.03 3.04 3 3.74
3.74 6.78 -1.84 4 3.88
3.88 12.43 -0.79 8 5
5 9.05 -1.81 17 10.15
10.15 32.49 -0.29 1 7.06
7.06 12.76 -1.78 15 12.43
12.43 39.8 1.81 23 6.92
6.92 12.51 -0.99 14 4.75
4.75 11.98 -1.8 6 13.57
13.57 24.5 -0.48 9 4.96
4.96 12.47 -1.16 13 13.57
13.57 24.48 0.97 10 11.68
11.68 29.31 -1.09 71 13.57
13.57 24.48 2.44 14 13.57
13.57 24.49 4.92 17 6.23
6.23 7.17 -1.83 6 3.57
3.57 5.4 -1.84 4 8.8
8.8 10.15 -1.05 27 4.78
4.78 7.22 -1.83 6 6.36
6.36 9.62 -1.81 6 35.42
35.42 40.82 1.4 29 8.28
8.28 12.52 -1.43 17 10.04
10.04 9.9 -1.47 1 22.03
22.03 33.28 -1.74 1 10.15
10.15 10.01 -0.74 14 22.24
22.24 33.6 0.35 12 36.81
36.81 36.3 0 26 71.28
71.28 70.23 5.22 1 3.92
3.92 12.46 -1.48 17 3.76
3.76 6.76 -1.84 4 3.93
3.93 12.42 -0.79 8 5.03
5.03 9.03 -1.81 27 10.28
10.28 32.5 -0.29 44 7.11
7.11 12.74 -1.78 17 12.41
12.41 39.23 1.78 48 6.98
6.98 12.51 -0.99 18 4.8
4.8 11.96 -1.8 5 13.56
13.56 24.28 -0.48 9 5.01
5.01 12.45 -1.16 2 13.56
13.56 24.26 0.96 10 11.81
11.81 29.32 -1.09 72 13.58
13.58 24.28 2.42 17 13.58
13.58 24.29 4.89 21 6.25
6.25 7.14 -1.83 5 3.59
3.59 5.39 -1.84 4 8.83
8.83 10.12 -1.05 36 4.8
4.8 7.21 -1.83 5 6.38
6.38 9.58 -1.81 5 35.33
35.33 40.43 1.39 12 8.32
8.32 12.48 -1.43 26 22.19
22.19 33.28 -1.74 1 10.22
10.22 10.01 -0.74 18 36.93
36.93 36.16 0 25 3.96
3.96 12.43 -1.48 2 3.78
3.78 6.75 -1.84 5 3.97
3.97 12.42 -0.79 8 5.07
5.07 9.02 -1.81 27 10.41
10.41 32.51 -0.29 19 7.16
7.16 12.73 -1.78 15 12.37
12.37 38.62 1.76 17 7.04
7.04 12.5 -0.99 21 4.84
4.84 11.94 -1.8 5 13.54
13.54 24.05 -0.48 9 13.57
13.57 24.08 0.95 10 11.92
11.92 29.3 -1.09 37 13.58
13.58 24.08 2.41 16 13.92
13.92 34.2 0.63 26 13.58
13.58 24.09 4.86 16 6.28
6.28 7.12 -1.83 5 3.61
3.61 5.37 -1.84 4 8.86
8.86 10.08 -1.05 36 4.83
4.83 7.19 -1.83 5 6.42
6.42 9.56 -1.81 5 8.39
8.39 12.49 -1.44 18 22.34
22.34 33.27 -1.74 1 10.28
10.28 10.01 -0.74 18 23.14
23.14 34.43 0.36 17 76.26
76.26 74.17 0 136 42.86
42.86 41.67 3.12 6 3.81
3.81 6.74 -1.84 5 4.02
4.02 12.43 -0.79 9 5.11
5.11 9.02 -1.82 27 10.53
10.53 32.49 -0.29 3 7.2
7.2 12.71 -1.78 13 12.33
12.33 38.08 1.73 19 7.09
7.09 12.5 -1 22 4.88
4.88 11.93 -1.8 5 13.51
13.51 23.8 -0.47 9 5.13
5.13 12.5 -1.17 8 13.55
13.55 23.87 0.95 11 13.29
13.29 32.36 -1.21 31 13.57
13.57 23.88 2.39 10 14.01
14.01 34.1 0.63 62 13.56
13.56 23.86 4.82 17 6.3
6.3 7.1 -1.83 5 3.63
3.63 5.36 -1.84 4 8.89
8.89 10.05 -1.05 35 4.85
4.85 7.17 -1.83 6 6.45
6.45 9.54 -1.81 5 8.46
8.46 12.51 -1.44 1 22.49
22.49 33.24 -1.75 1 10.36
10.36 10.01 -0.75 18 23.2
23.2 34.27 0.36 4 76.53
76.53 73.91 0 164 43.03
43.03 41.53 3.12 1 4.07
4.07 12.48 -1.49 7 3.83
3.83 6.72 -1.84 4 4.07
4.07 12.43 -0.79 9 5.14
5.14 9.01 -1.82 30 10.64
10.64 32.47 -0.29 4 7.25
7.25 12.69 -1.78 14 12.3
12.3 37.51 1.71 24 7.15
7.15 12.5 -1 20 4.92
4.92 11.91 -1.8 5 13.51
13.51 23.61 -0.47 9 5.17
5.17 12.47 -1.17 10 13.55
13.55 23.65 0.94 18 14.08
14.08 33.94 -1.27 15 13.57
13.57 23.68 2.38 23 13.57
13.57 23.7 4.8 22 6.33
6.33 7.09 -1.84 5 3.64
3.64 5.34 -1.84 4 8.91
8.91 10 -1.04 39 4.88
4.88 7.16 -1.83 5 6.48
6.48 9.51 -1.81 5 35.31
35.31 39.56 1.37 17 8.55
8.55 12.54 -1.45 6 22.68
22.68 33.25 -1.75 1 10.43
10.43 10.01 -0.75 14 22.87
22.87 33.52 0.35 4 37.48
37.48 35.94 0 24 27.89
27.89 40.86 3.02 12 4.12
4.12 12.46 -1.48 14 3.85
3.85 6.7 -1.84 4 4.12
4.12 12.43 -0.79 11 5.18
5.18 9 -1.82 30 10.78
10.78 32.47 -0.29 6 7.31
7.31 12.68 -1.79 17 12.31
12.31 37.08 1.69 35 7.21
7.21 12.49 -1 22 4.96
4.96 11.89 -1.8 5 13.61
13.61 23.58 -0.47 29 13.63
13.63 23.61 0.94 31 14.21
14.21 33.92 -1.27 19 13.66
13.66 23.64 2.38 29 13.59
13.59 23.52 4.77 14 6.36
6.36 7.07 -1.84 5 3.66
3.66 5.33 -1.84 4 8.95
8.95 9.97 -1.04 36 4.91
4.91 7.15 -1.83 5 6.51
6.51 9.48 -1.81 5 35.5
35.5 39.49 1.38 25 8.61
8.61 12.54 -1.45 9 22.84
22.84 33.24 -1.75 1 10.5
10.5 10.01 -0.75 18 23.02
23.02 33.49 0.35 53 37.17
37.17 35.4 0 17 3.88
3.88 6.69 -1.84 4 4.17
4.17 12.42 -0.79 13 5.21
5.21 8.99 -1.82 28 10.9
10.9 32.46 -0.29 6 7.35
7.35 12.66 -1.79 13 12.26
12.26 36.51 1.67 15 7.26
7.26 12.49 -1 21 5.01
5.01 11.88 -1.8 5 13.72
13.72 23.58 -0.47 31 13.73
13.73 23.58 0.94 23 14.35
14.35 33.92 -1.27 17 13.76
13.76 23.63 2.38 22 25.46
25.46 60.16 1.12 4 13.58
13.58 23.33 4.74 10 6.39
6.39 7.05 -1.84 5 3.69
3.69 5.33 -1.84 4 9.01
9.01 9.96 -1.05 34 4.93
4.93 7.12 -1.83 5 6.55
6.55 9.46 -1.81 5 35.47
35.47 39.18 1.37 26 8.91
8.91 8.43 -1.28 5 22.99
22.99 33.22 -1.76 1 10.57
10.57 10.01 -0.75 18 23.14
23.14 33.43 0.35 46 28.25
28.25 40.77 3.03 15 3.89
3.89 6.67 -1.84 6 4.22
4.22 12.43 -0.79 10 5.25
5.25 8.98 -1.82 20 11.02
11.02 32.46 -0.29 9 7.41
7.41 12.66 -1.79 12 12.22
12.22 36 1.65 15 7.32
7.32 12.49 -1 21 5.04
5.04 11.86 -1.8 5 13.79
13.79 23.53 -0.47 5 5.32
5.32 12.46 -1.18 19 19.79
19.79 33.75 1.35 1 14.49
14.49 33.92 -1.28 15 13.87
13.87 23.63 2.38 1 25.31
25.31 59.25 1.11 4 13.56
13.56 23.12 4.71 11 6.41
6.41 7.03 -1.84 5 3.7
3.7 5.31 -1.84 4 9.05
9.05 9.94 -1.05 34 4.95
4.95 7.11 -1.83 5 6.58
6.58 9.43 -1.81 5 35.64
35.64 39.11 1.37 25 8.75
8.75 12.55 -1.46 9 8.88
8.88 8.35 -1.27 9 23.15
23.15 33.2 -1.76 1 10.64
10.64 10.01 -0.76 17 32.27
32.27 46.26 0.49 1 37.18
37.18 34.93 0 30 4.26
4.26 12.47 -1.49 13 3.92
3.92 6.66 -1.84 4 4.26
4.26 12.43 -0.79 13 5.28
5.28 8.96 -1.82 24 11.14
11.14 32.46 -0.29 6 7.46
7.46 12.65 -1.79 16 12.21
12.21 35.56 1.63 17 7.38
7.38 12.49 -1.01 23 5.09
5.09 11.84 -1.8 5 19.91
19.91 33.69 -0.68 21 5.36
5.36 12.44 -1.18 1 19.95
19.95 33.73 1.36 29 14.61
14.61 33.88 -1.28 17 25.3
25.3 58.62 1.1 3 13.55
13.55 22.92 4.68 13 6.43
6.43 7 -1.84 5 3.72
3.72 5.3 -1.84 4 9.11
9.11 9.93 -1.05 25 4.97
4.97 7.08 -1.83 5 6.61
6.61 9.41 -1.81 5 35.63
35.63 38.82 1.36 25 8.79
8.79 12.51 -1.46 6 8.82
8.82 8.23 -1.26 124 22.35
22.35 31.8 -1.69 15 10.72
10.72 10.01 -0.76 16 32.43
32.43 46.13 0.49 26 38.56
38.56 35.96 0 25 37.68
37.68 53.58 4 1 28.43
28.43 40.38 6.05 1 4.31
4.31 12.45 -1.49 5 3.94
3.94 6.64 -1.84 5 4.31
4.31 12.43 -0.8 15 5.33
5.33 8.96 -1.83 23 11.28
11.28 32.46 -0.29 6 7.52
7.52 12.63 -1.79 16 12.2
12.2 35.12 1.61 43 7.44
7.44 12.49 -1.01 20 5.13
5.13 11.83 -1.8 6 20.08
20.08 33.69 -0.68 1 20.09
20.09 33.69 1.36 27 14.75
14.75 33.87 -1.28 1 25.25
25.25 57.94 1.09 4 13.57
13.57 22.75 4.66 15 6.46
6.46 6.98 -1.84 6 3.75
3.75 5.29 -1.84 4 9.17
9.17 9.93 -1.05 1 5
5 7.06 -1.83 6 9.39
9.39 10.17 -0.35 1 6.64
6.64 9.39 -1.81 6 35.9
35.9 38.83 1.37 17 8.9
8.9 8.25 -1.27 135 22.45
22.45 31.71 -1.69 3 10.79
10.79 10 -0.76 13 32.54
32.54 45.94 0.49 25 38.68
38.68 35.82 0 1 37.83
37.83 53.38 3.99 2 47.14
47.14 43.62 3.35 1 28.63
28.63 40.37 6.06 4 3.97
3.97 6.63 -1.84 4 4.36
4.36 12.42 -0.8 12 5.36
5.36 8.95 -1.83 20 11.4
11.4 32.44 -0.29 2 7.55
7.55 12.59 -1.79 15 12.14
12.14 34.54 1.59 17 7.5
7.5 12.49 -1.01 22 5.18
5.18 11.82 -1.8 5 19.26
19.26 32.07 -0.65 29 5.48
5.48 12.48 -1.18 10 20.25
20.25 33.7 1.36 30 14.89
14.89 33.86 -1.28 1 25.14
25.14 57.16 1.07 3 13.6
13.6 22.62 4.64 25 6.48
6.48 6.95 -1.84 5 3.76
3.76 5.27 -1.84 4 5.02
5.02 7.05 -1.83 5 9.46
9.46 10.17 -0.36 1 6.67
6.67 9.36 -1.81 5 36.14
36.14 38.82 1.37 33 8.94
8.94 12.54 -1.47 10 8.92
8.92 8.21 -1.26 13 10.88
10.88 10.01 -0.77 17 32.75
32.75 45.9 0.49 26 38.65
38.65 35.53 0 19 30.25
30.25 42.37 3.18 2 27.44
27.44 38.41 5.78 1 4.41
4.41 12.46 -1.5 2 3.99
3.99 6.62 -1.84 4 4.41
4.41 12.41 -0.8 11 5.41
5.41 8.95 -1.83 12 12.21
12.21 34.36 -0.31 70 7.58
7.58 12.54 -1.79 11 12.15
12.15 34.21 1.57 70 7.56
7.56 12.49 -1.01 14 5.22
5.22 11.8 -1.8 6 19.36
19.36 31.98 -0.65 12 5.53
5.53 12.48 -1.18 8 20.39
20.39 33.68 1.36 27 15.03
15.03 33.86 -1.28 1 25.01
25.01 56.32 1.06 4 13.68
13.68 22.59 4.64 23 6.5
6.5 6.93 -1.84 5 3.78
3.78 5.26 -1.84 4 5.05
5.05 7.03 -1.83 5 6.7
6.7 9.34 -1.81 5 36.28
36.28 38.7 1.37 21 8.99
8.99 12.51 -1.47 3 8.77
8.77 8.01 -1.24 1 28.85
28.85 40.17 -2.15 1 10.95
10.95 10.01 -0.77 17 32.98
32.98 45.91 0.49 29 30.37
30.37 42.24 3.18 6 27.65
27.65 38.43 5.8 19 4.46
4.46 12.47 -1.5 20 4.01
4.01 6.6 -1.84 4 4.45
4.45 12.42 -0.8 13 5.43
5.43 8.92 -1.83 10 12.33
12.33 34.33 -0.31 72 7.62
7.62 12.51 -1.79 13 12.28
12.28 34.2 1.57 75 7.61
7.61 12.49 -1.01 19 5.25
5.25 11.78 -1.8 5 20.54
20.54 33.67 -0.68 1 20.54
20.54 33.67 1.36 30 15.16
15.16 33.84 -1.28 1 24.93
24.93 55.65 1.05 3 6.53
6.53 6.91 -1.84 6 3.79
3.79 5.24 -1.84 4 9.56
9.56 10.14 -1.09 2 5.07
5.07 7.01 -1.83 6 6.73
6.73 9.31 -1.81 7 36.49
36.49 38.67 1.38 22 9.08
9.08 12.55 -1.48 6 8.75
8.75 7.94 -1.23 1 28.7
28.7 39.67 -2.13 9 11.04
11.04 10.02 -0.77 13 33.21
33.21 45.88 0.49 29 30.53
30.53 42.14 3.18 3 72.39
72.39 65.61 5.1 1 28.46
28.46 39.26 5.94 9 4.03
4.03 6.59 -1.84 5 4.5
4.5 12.42 -0.8 16 5.46
5.46 8.9 -1.83 7 12.38
12.38 34.11 -0.31 1 7.65
7.65 12.46 -1.78 14 12.42
12.42 34.23 1.58 71 7.68
7.68 12.5 -1.02 18 5.3
5.3 11.76 -1.8 5 20.68
20.68 33.64 -0.68 19 5.63
5.63 12.46 -1.19 5 20.71
20.71 33.67 1.37 32 15.3
15.3 33.85 -1.28 1 24.85
24.85 54.93 1.04 4 6.56
6.56 6.89 -1.84 6 3.81
3.81 5.23 -1.84 4 9.62
9.62 10.13 -1.09 3 5.09
5.09 6.99 -1.83 6 6.77
6.77 9.29 -1.81 6 36.81
36.81 38.72 1.38 15 9.14
9.14 12.54 -1.48 9 8.77
8.77 7.9 -1.23 1 28.62
28.62 39.26 -2.12 4 11.11
11.11 10.01 -0.77 13 33.34
33.34 45.71 0.49 19 72.56
72.56 65.27 5.09 2 28.24
28.24 38.66 5.86 3 4.06
4.06 6.57 -1.84 5 4.56
4.56 12.42 -0.8 17 5.48
5.48 8.86 -1.83 5 12.52
12.52 34.09 -0.31 1 7.7
7.7 12.44 -1.79 14 12.56
12.56 34.21 1.58 64 7.74
7.74 12.5 -1.02 15 5.34
5.34 11.74 -1.8 5 20.84
20.84 33.62 -0.68 1 5.68
5.68 12.46 -1.19 24 20.86
20.86 33.65 1.37 31 15.44
15.44 33.82 -1.29 1 31.34
31.34 50.5 5.18 9 6.57
6.57 6.85 -1.83 5 3.83
3.83 5.22 -1.84 4 9.67
9.67 10.11 -1.09 3 5.12
5.12 6.98 -1.83 5 6.79
6.79 9.25 -1.81 5 37.2
37.2 38.86 1.39 12 8.75
8.75 7.82 -1.22 2 33.8
33.8 46.01 0.49 1 38.94
38.94 34.81 0 27 32.06
32.06 43.61 3.3 2 72.75
72.75 64.99 5.09 2 28.34
28.34 38.51 5.85 2 4.62
4.62 12.5 -1.51 9 4.08
4.08 6.56 -1.84 5 4.6
4.6 12.42 -0.8 15 5.52
5.52 8.85 -1.83 5 12.66
12.66 34.12 -0.31 1 7.74
7.74 12.41 -1.78 10 12.69
12.69 34.21 1.58 55 7.81
7.81 12.51 -1.02 14 5.38
5.38 11.72 -1.8 5 21
21 33.61 -0.69 1 5.72
5.72 12.43 -1.19 26 21.03
21.03 33.66 1.37 30 15.58
15.58 33.81 -1.29 1 31.49
31.49 50.37 5.18 1 15.71
15.71 34.08 0.64 34 6.59
6.59 6.83 -1.83 5 3.85
3.85 5.2 -1.84 4 9.76
9.76 10.14 -1.1 3 5.15
5.15 6.96 -1.83 5 6.82
6.82 9.22 -1.8 7 37.37
37.37 38.76 1.39 22 9.29
9.29 12.56 -1.49 9 8.75
8.75 7.77 -1.22 2 22.04
22.04 29.79 -1.61 32 9.13
9.13 8.12 -0.63 1 22.14
22.14 29.92 0.32 26 39.02
39.02 34.65 0 24 32.23
32.23 43.53 3.31 9 72.92
72.92 64.7 5.09 1 28.58
28.58 38.57 5.88 2 4.66
4.66 12.48 -1.51 8 4.11
4.11 6.55 -1.84 6 4.65
4.65 12.42 -0.8 14 5.53
5.53 8.81 -1.82 4 12.81
12.81 34.16 -0.31 1 7.8
7.8 12.41 -1.79 9 12.83
12.83 34.2 1.58 39 7.87
7.87 12.5 -1.02 10 5.43
5.43 11.71 -1.8 6 21.14
21.14 33.57 -0.69 15 5.78
5.78 12.44 -1.19 15 21.19
21.19 33.63 1.38 27 15.73
15.73 33.8 -1.29 1 31.73
31.73 50.33 5.19 15 15.82
15.82 33.98 0.64 71 13.61
13.61 21.58 4.48 21 6.62
6.62 6.8 -1.83 6 3.87
3.87 5.2 -1.84 6 9.8
9.8 10.1 -1.1 3 5.17
5.17 6.94 -1.83 6 6.85
6.85 9.18 -1.8 8 9.33
9.33 12.51 -1.49 4 8.76
8.76 7.71 -1.22 3 9.07
9.07 8 -0.63 1 22.22
22.22 29.75 0.32 12 76.56
76.56 67.37 0 109 32.47
32.47 43.44 3.31 9 28.89
28.89 38.6 5.9 2 4.14
4.14 6.54 -1.84 5 4.71
4.71 12.41 -0.8 19 5.57
5.57 8.79 -1.82 4 12.98
12.98 34.13 -0.31 1 7.86
7.86 12.38 -1.79 9 13
13 34.18 1.58 41 7.95
7.95 12.51 -1.03 10 5.48
5.48 11.68 -1.8 5 21.34
21.34 33.57 -0.69 17 21.38
21.38 33.61 1.38 29 15.89
15.89 33.77 -1.29 1 32
32 50.27 5.2 33 24.61
24.61 52.28 0.99 4 13.72
13.72 21.55 4.49 21 6.64
6.64 6.77 -1.83 5 3.89
3.89 5.18 -1.84 5 9.82
9.82 10.03 -1.09 3 5.2
5.2 6.92 -1.83 5 6.87
6.87 9.13 -1.8 9 29.27
29.27 29.87 1.08 6 9.44
9.44 12.55 -1.5 5 8.77
8.77 7.66 -1.21 3 23.81
23.81 31.64 -1.72 9 9.01
9.01 7.88 -0.62 2 22.18
22.18 29.47 0.32 2 40.03
40.03 34.97 0 6 30.34
30.34 40.28 3.08 23 28.96
28.96 38.42 5.89 3 4.16
4.16 6.52 -1.84 6 4.77
4.77 12.42 -0.8 15 5.6
5.6 8.76 -1.82 4 13.12
13.12 34.15 -0.31 1 7.91
7.91 12.37 -1.79 8 13.13
13.13 34.18 1.59 32 8.01
8.01 12.5 -1.03 8 5.52
5.52 11.67 -1.8 6 21.51
21.51 33.57 -0.69 15 21.53
21.53 33.58 1.38 27 16.03
16.03 33.77 -1.29 1 32.24
32.24 50.27 5.21 30 24.58
24.58 51.74 0.98 4 6.67
6.67 6.75 -1.83 6 3.91
3.91 5.16 -1.84 4 9.8
9.8 9.95 -1.09 1 5.23
5.23 6.9 -1.83 6 6.89
6.89 9.1 -1.8 10 29.37
29.37 29.76 1.08 74 9.49
9.49 12.52 -1.5 9 8.77
8.77 7.6 -1.21 3 23.97
23.97 31.61 -1.73 3 9.02
9.02 7.83 -0.62 2 22.36
22.36 29.48 0.32 12 39.95
39.95 34.64 0 1 30.43
30.43 40.1 3.07 9 41.62
41.62 36.06 2.87 15 4.82
4.82 12.47 -1.51 15 4.19
4.19 6.5 -1.84 4 4.82
4.82 12.42 -0.81 16 5.64
5.64 8.75 -1.82 6 13.26
13.26 34.12 -0.31 1 7.97
7.97 12.35 -1.79 10 13.27
13.27 34.15 1.59 32 8.08
8.08 12.51 -1.03 7 5.56
5.56 11.65 -1.8 6 21.67
21.67 33.54 -0.69 15 5.98
5.98 12.49 -1.2 9 21.7
21.7 33.57 1.38 25 16.18
16.18 33.76 -1.29 1 31.72
31.72 49.07 5.09 39 24.53
24.53 51.17 0.98 4 6.7
6.7 6.73 -1.83 5 3.93
3.93 5.14 -1.84 4 9.86
9.86 9.93 -1.09 1 5.25
5.25 6.88 -1.83 5 6.93
6.93 9.08 -1.8 16 29.48
29.48 29.67 1.08 3 9.56
9.56 12.53 -1.51 4 8.77
8.77 7.56 -1.21 3 9.02
9.02 7.77 -0.62 2 22.48
22.48 29.44 0.32 6 35.35
35.35 30.45 0 34 29.83
29.83 39.03 3 6 41.56
41.56 35.77 2.86 9 28.92
28.92 37.81 5.83 9 4.21
4.21 6.49 -1.84 6 4.87
4.87 12.42 -0.81 16 5.66
5.66 8.72 -1.82 4 13.38
13.38 34.11 -0.31 1 8.01
8.01 12.32 -1.79 10 13.4
13.4 34.15 1.59 30 8.14
8.14 12.51 -1.03 7 5.6
5.6 11.64 -1.8 6 21.82
21.82 33.54 -0.69 1 6.03
6.03 12.49 -1.2 7 21.85
21.85 33.56 1.39 27 16.31
16.31 33.74 -1.3 1 31.84
31.84 48.88 5.09 3 24.42
24.42 50.52 0.96 6 6.73
6.73 6.71 -1.84 5 3.95
3.95 5.13 -1.84 4 9.93
9.93 9.93 -1.1 8 5.27
5.27 6.86 -1.83 5 6.96
6.96 9.05 -1.8 19 42.28
42.28 42.26 1.55 9 9.62
9.62 12.51 -1.51 6 8.77
8.77 7.51 -1.2 4 25.21
25.21 32.79 -1.8 55 9
9 7.71 -0.61 2 25.27
25.27 32.85 0.36 54 35.36
35.36 30.24 0 103 30.01
30.01 38.99 3 36 41.09
41.09 35.11 2.82 17 29.15
29.15 37.84 5.85 3 4.23
4.23 6.48 -1.84 4 4.92
4.92 12.42 -0.81 14 5.69
5.69 8.71 -1.82 4 13.52
13.52 34.11 -0.31 1 8.06
8.06 12.31 -1.8 9 13.53
13.53 34.15 1.59 29 8.19
8.19 12.49 -1.04 6 5.64
5.64 11.61 -1.8 6 21.98
21.98 33.52 -0.69 1 22
22 33.55 1.39 25 16.45
16.45 33.74 -1.3 1 24.42
24.42 50.07 0.96 9 13.58
13.58 20.69 4.35 12 6.74
6.74 6.68 -1.83 6 3.96
3.96 5.12 -1.84 6 9.95
9.95 9.89 -1.09 14 5.29
5.29 6.84 -1.83 6 6.99
6.99 9.03 -1.8 18 42.54
42.54 42.22 1.55 9 8.78
8.78 7.46 -1.2 3 25.3
25.3 32.66 -1.8 47 9.04
9.04 7.68 -0.61 2 25.34
25.34 32.71 0.36 3 35.51
35.51 30.16 0 255 30.17
30.17 38.92 3.01 1 40.63
40.63 34.48 2.78 4 4.98
4.98 12.49 -1.52 9 4.25
4.25 6.45 -1.84 4 4.97
4.97 12.42 -0.81 19 5.72
5.72 8.68 -1.82 5 13.65
13.65 34.1 -0.31 1 8.11
8.11 12.29 -1.8 8 13.67
13.67 34.14 1.59 36 8.28
8.28 12.54 -1.04 17 5.68
5.68 11.6 -1.8 5 22.14
22.14 33.51 -0.7 1 6.14
6.14 12.49 -1.21 3 22.17
22.17 33.54 1.39 31 16.59
16.59 33.73 -1.3 1 24.38
24.38 49.53 0.95 4 13.58
13.58 20.55 4.33 12 6.77
6.77 6.66 -1.83 6 3.98
3.98 5.1 -1.84 6 10.06
10.06 9.93 -1.1 18 5.32
5.32 6.83 -1.83 6 7.04
7.04 9.03 -1.8 21 37.18
37.18 36.65 1.35 25 8.78
8.78 7.41 -1.2 4 24.72
24.72 31.68 -1.75 12 9.03
9.03 7.62 -0.61 2 34
34 43.57 0.48 9 35.76
35.76 30.16 0 255 40.96
40.96 34.52 2.79 12 30.43
30.43 38.94 6.05 4 5.03
5.03 12.48 -1.52 10 4.27
4.27 6.45 -1.84 4 5.02
5.02 12.42 -0.81 20 5.75
5.75 8.67 -1.82 4 13.79
13.79 34.11 -0.31 1 8.15
8.15 12.26 -1.8 6 13.8
13.8 34.13 1.59 36 8.32
8.32 12.5 -1.04 27 5.72
5.72 11.57 -1.8 5 22.29
22.29 33.49 -0.7 1 6.19
6.19 12.48 -1.21 16 22.32
22.32 33.53 1.39 30 16.73
16.73 33.72 -1.3 1 24.31
24.31 48.98 0.94 6 13.59
13.59 20.41 4.31 12 6.79
6.79 6.64 -1.83 6 4
4 5.09 -1.84 4 10.11
10.11 9.91 -1.1 16 5.34
5.34 6.81 -1.83 6 7.08
7.08 9.02 -1.8 21 37.19
37.19 36.41 1.35 32 8.79
8.79 7.36 -1.2 4 24.86
24.86 31.66 -1.75 12 9.05
9.05 7.59 -0.61 2 34.2
34.2 43.52 0.48 34 36.02
36.02 30.17 0 254 33.74
33.74 42.91 3.33 4 40.95
40.95 34.28 2.78 12 30.39
30.39 38.63 6.02 12 5.08
5.08 12.48 -1.52 2 4.29
4.29 6.42 -1.84 6 5.07
5.07 12.42 -0.81 16 5.78
5.78 8.64 -1.82 6 13.92
13.92 34.1 -0.31 1 8.2
8.2 12.24 -1.8 7 13.93
13.93 34.13 1.6 30 8.36
8.36 12.47 -1.04 12 5.76
5.76 11.55 -1.8 6 22.44
22.44 33.47 -0.7 1 22.48
22.48 33.52 1.4 26 16.86
16.86 33.7 -1.3 1 24.23
24.23 48.4 0.93 12 13.6
13.6 20.26 4.29 12 6.81
6.81 6.61 -1.83 6 4.02
4.02 5.08 -1.84 6 10.21
10.21 9.94 -1.11 17 5.37
5.37 6.79 -1.83 6 7.12
7.12 9 -1.81 23 37.24
37.24 36.21 1.35 27 8.75
8.75 11.06 -1.35 1 8.79
8.79 7.31 -1.19 4 24.98
24.98 31.57 -1.75 1 9.06
9.06 7.54 -0.61 2 34.3
34.3 43.34 0.48 19 36.28
36.28 30.17 0 255 34.15
34.15 43.11 3.36 1 41
41 34.08 2.78 12 30.28
